# This PCD file was generated using the MATLAB® pcwrite function
# from Computer Vision Toolbox®.
# .PCD v.7 - Point Cloud Data file format
VERSION .7
FIELDS x y z intensity
SIZE 4 4 4 4
TYPE F F F F
COUNT 1 1 1 1
WIDTH 1171
HEIGHT 1
VIEWPOINT 0 0 0 1 0 0 0
POINTS 1171
DATA ascii
-24.132053 4.981718 -8.866823 14.062400
-23.849697 5.007605 -8.792967 14.062000
-23.337233 4.976526 -8.711428 10.562088
-22.639816 5.200940 -8.646435 12.464190
-22.392620 5.268305 -8.636452 13.070150
-23.194729 5.568067 -8.508165 11.061550
-22.801489 5.386736 -8.588956 14.060700
-22.399221 5.758057 -8.729120 14.074400
-26.601500 6.177471 -8.716560 12.073000
-25.686119 6.055387 -8.481787 12.073200
-24.799608 6.171371 -8.540085 11.067225
-24.547691 5.957096 -8.537732 10.062700
-25.007204 6.585566 -8.562366 12.071500
-24.029648 6.430941 -8.407426 12.070700
-25.933056 7.108358 -8.545539 16.071899
-35.923737 7.537483 -8.571279 10.053000
-1.829044 11.834755 -8.869625 0.154950
-1.191841 11.760289 -8.656591 0.153700
-0.106580 11.643261 -8.845189 0.162700
-0.031059 11.800578 -8.886395 0.162400
-1.750001 11.908752 -8.887344 0.154750
-0.830995 12.093736 -8.583863 6.102600
-0.531085 11.950061 -8.609554 0.152100
-1.648145 12.633184 -8.839326 0.154100
-1.180141 12.647948 -8.735108 8.112741
-0.878580 12.615609 -8.611130 10.468500
0.530169 12.627675 -8.700876 4.165825
-3.992831 13.068903 -8.736206 4.167100
-3.103020 13.302034 -8.699228 2.156300
-2.962345 13.222437 -8.660020 1.156317
-0.989211 12.950537 -8.432111 13.054850
-3.914963 13.684892 -8.691578 0.156320
-3.046871 13.732869 -8.530785 0.156300
-5.331552 14.232001 -8.662333 4.121800
-4.987285 14.211300 -8.412418 12.172050
-3.834906 14.195111 -8.504207 4.160740
-2.779072 14.231223 -8.731979 0.146262
-2.117676 14.109440 -8.562008 14.034700
-1.729867 14.337835 -8.688313 3.155900
-1.454696 14.092796 -8.659549 3.327850
-0.328148 14.242568 -8.807042 2.159500
-13.756558 14.759891 -8.416700 6.164300
-4.740929 14.439848 -8.705667 12.043400
-4.290472 14.624703 -8.652067 8.091645
-3.884278 14.570695 -8.718731 6.604725
-3.209053 14.487848 -8.876778 0.149200
-2.817544 14.675228 -8.702357 6.216166
-2.421964 14.402584 -8.780161 12.045200
-1.740431 14.536757 -8.828602 6.167200
-0.807348 14.685202 -8.825878 1.006371
-13.792076 15.125596 -8.543809 7.338510
-13.245251 15.250555 -8.512695 9.127017
-12.687694 14.911892 -8.650754 10.167500
-2.901104 15.008055 -8.451315 14.039400
-2.407064 15.275486 -8.587120 14.035400
-2.015800 15.156418 -8.517217 18.058701
-1.184998 15.246229 -8.671776 0.148650
-0.803279 15.095539 -8.706681 3.637356
-0.553129 15.027740 -8.832660 4.161000
-13.218088 15.389134 -8.414237 6.155300
-10.775785 15.629214 -8.480048 8.125134
-9.893400 15.843606 -8.407969 6.167000
-2.217291 15.681303 -8.621514 10.606125
-1.854748 15.706669 -8.646129 10.653131
-1.231223 15.640855 -8.471223 7.131500
-0.844067 15.697715 -8.714523 8.575221
-0.227856 15.660932 -8.754078 10.167450
0.211699 15.790894 -8.703341 8.599725
0.694872 15.825575 -8.746619 5.449434
1.612877 15.629964 -8.657386 0.147400
-13.983088 15.939134 -8.744237 6.155600
-13.266537 16.136063 -8.697338 9.706095
-12.862947 16.219532 -8.745343 12.716483
-12.373518 16.176258 -8.779512 12.048550
-9.826720 15.954672 -8.416356 11.109600
-3.629892 16.356976 -8.512581 2.156150
-3.176754 16.331667 -8.423637 2.143133
-2.158513 15.915094 -8.682035 8.104150
-1.775934 16.039291 -8.553534 10.122031
-1.428927 16.125257 -8.595455 8.753581
-0.907810 15.939861 -8.511356 11.170200
-0.267857 16.112585 -8.602365 8.915800
0.193341 16.015451 -8.643298 11.145309
0.572710 16.139076 -8.646381 12.105590
0.957576 15.966251 -8.793654 4.158400
-16.425695 16.821205 -8.869692 12.169050
-15.875234 16.823097 -8.725772 12.168600
-13.748348 16.441862 -8.779245 12.041600
-13.221881 16.468987 -8.557332 11.419599
-12.874586 16.516006 -8.573112 11.186846
-12.290117 16.738581 -8.737823 12.722233
-11.858088 16.524134 -8.434237 6.152800
-11.519863 16.566401 -8.403149 6.160200
-10.648516 16.723644 -8.839068 14.057600
-10.464172 16.707401 -8.649310 12.110600
-9.788811 16.474474 -8.455966 10.170300
-9.197689 16.650459 -8.799227 12.044350
-9.001367 16.661049 -8.762447 12.044232
-4.275136 16.554911 -8.493234 14.058000
-3.331998 16.501081 -8.658839 11.307537
-2.776925 16.673758 -8.558689 9.289461
-2.450958 16.626205 -8.609084 10.529726
-1.632145 16.451464 -8.837422 14.039100
-1.250763 16.425388 -8.735373 12.171100
-0.886034 16.506577 -8.858047 12.167700
0.746471 16.668137 -8.598454 9.410181
1.128652 16.786640 -8.644785 10.119017
-20.389965 17.076021 -8.535665 14.171500
-20.051552 17.041855 -8.451215 14.171400
-18.673328 17.056293 -8.411265 16.063601
-18.298019 17.257338 -8.602260 13.679339
-16.330334 17.036293 -8.883589 12.168800
-15.676135 17.153568 -8.738951 12.168200
-15.459870 17.236231 -8.700929 12.168000
-13.264471 17.117868 -8.655226 11.106550
-12.601004 17.322580 -8.540974 12.051900
-12.488377 17.165323 -8.669871 12.044000
-11.875989 17.137371 -8.650534 6.160150
-11.471291 17.095879 -8.537132 6.155800
-10.583323 16.924047 -8.572124 10.163700
-10.427045 17.001884 -8.695915 9.456466
-9.659258 17.334322 -8.683584 9.107075
-9.345434 17.263931 -8.600115 8.166750
-3.402058 17.114037 -8.501400 14.170700
-2.331691 16.989140 -8.646077 7.122300
-1.907592 16.913754 -8.803352 14.066400
-1.356900 17.177641 -8.660186 2.143540
1.133831 16.974657 -8.590569 10.163079
1.512072 16.954227 -8.618050 4.147250
-20.380867 17.544109 -8.779510 16.064800
-19.778917 17.733402 -8.485902 14.170667
-19.534260 17.870781 -8.672521 16.064100
-18.925419 17.784430 -8.822336 16.056101
-15.458962 17.477062 -8.745084 12.167800
-13.422712 17.570524 -8.842087 10.169100
-11.598736 17.394705 -8.730501 6.166500
-11.454645 17.541063 -8.686000 6.159300
-10.711189 17.699156 -8.657907 8.938070
-10.484822 17.754593 -8.638571 10.607000
-9.910626 17.644840 -8.493288 9.712150
2.068390 17.464916 -8.475515 12.166700
-15.993088 18.239134 -8.599237 8.155600
-13.646608 18.105085 -8.468302 8.165700
-12.270144 18.077797 -8.766545 13.117849
-10.886048 18.075886 -8.740319 10.416100
-10.429392 18.103836 -8.768858 10.118470
-9.871458 18.299612 -8.693169 8.791975
-9.509749 18.374748 -8.683175 10.161500
-3.708967 18.196789 -8.724883 8.154750
-3.424891 18.275881 -8.751630 6.122775
-2.983584 18.148079 -8.434825 12.168200
0.270310 18.298365 -8.641819 6.158300
-18.113798 18.553753 -8.665958 12.171600
-17.785656 18.600554 -8.678411 12.130366
-17.242126 18.750515 -8.487404 16.058575
-15.584549 18.584379 -8.882267 12.054300
-13.334794 18.859867 -8.510167 12.164900
-13.072041 18.879869 -8.648361 14.062700
-10.350989 18.493517 -8.722010 12.045700
-9.888380 18.480392 -8.673454 12.610200
-8.877817 18.773184 -8.676328 8.562180
-8.392676 18.466768 -8.694944 6.163500
-3.763820 18.466534 -8.699028 6.151500
-3.489659 18.429527 -8.576694 11.162451
-2.296637 18.535622 -8.417749 14.169451
-0.090719 18.388815 -8.508479 6.154600
-19.760765 19.228868 -8.706248 14.169500
-14.744349 19.050255 -8.885575 12.166000
-12.843675 18.952959 -8.610191 13.384300
-8.775567 18.921249 -8.694625 12.719234
-8.450631 19.052338 -8.694828 7.493834
-16.242725 19.575041 -8.511301 16.054100
-15.335979 19.653482 -8.591547 11.103900
-12.150834 19.758799 -8.428880 12.163200
-18.932568 19.990213 -8.458134 14.055349
-12.245343 20.081217 -8.550087 11.746660
-11.386000 20.136332 -8.821558 10.165751
-14.237897 20.723167 -8.513431 14.053000
-13.944891 20.582176 -8.751462 12.170700
-9.916419 20.389042 -8.453817 14.170700
-16.713230 21.077784 -8.580544 15.061749
-13.444986 20.985113 -8.678240 12.170100
-11.843823 21.810907 -8.812995 12.161700
-11.632158 22.324856 -8.415663 12.168000
-11.561007 22.274990 -8.600394 12.169400
-16.081188 23.628962 -8.639684 14.164100
-15.669346 23.917938 -8.856415 12.166700
-14.070845 24.338285 -8.431425 10.157700
-15.051793 24.416056 -8.574244 14.162900
-14.254566 24.537682 -8.597858 12.106649
-12.114349 24.819685 -8.864842 12.167100
-13.103088 25.189135 -8.464237 10.148700
-12.678044 25.115223 -8.433769 10.156050
-12.478853 25.243864 -8.441299 10.155800
-11.878392 25.399988 -8.727190 14.061700
-10.344505 25.784149 -8.571286 11.497666
-14.204720 26.365852 -8.657954 10.164100
-10.479806 26.158779 -8.877569 12.168200
-14.743582 26.725615 -8.811244 10.161400
-13.971525 26.655924 -8.672613 10.160900
-13.150557 27.619499 -8.883347 18.172100
-12.649571 27.653120 -8.713792 14.159500
-19.277161 28.584686 -8.442991 12.166400
-22.105141 -49.937340 -7.909202 16.136801
-21.912518 -49.938595 -8.144203 12.422815
-21.196495 -49.862015 -8.386379 14.118000
-20.861782 -49.820026 -8.229796 14.518141
-20.401533 -49.900463 -8.154615 14.521680
-20.071899 -49.705742 -8.162645 14.126500
-19.059902 -49.817245 -8.054096 14.127100
-23.110582 -49.538319 -7.988255 16.115299
-22.887806 -49.424381 -8.071368 13.125851
-21.783474 -49.202255 -8.207454 11.474099
-21.265541 -49.247646 -8.157497 13.127037
-20.819136 -49.243660 -8.228796 14.127900
-20.239620 -49.353767 -8.118196 14.375475
-19.875288 -49.475845 -8.286538 14.134925
-22.920013 -48.790932 -8.325706 16.138700
-22.330063 -48.960152 -8.109632 12.859715
-21.730940 -48.830833 -8.204747 14.129277
-21.292313 -48.868687 -8.218219 13.657005
-20.877819 -48.925407 -8.096471 12.354767
-22.711828 -48.286942 -8.155537 12.987685
-22.376030 -48.272614 -8.181241 12.379200
-22.010515 -48.115288 -8.199730 14.136100
-21.576889 -48.521996 -8.342770 14.113500
-23.273563 -47.978100 -8.164045 12.138450
-22.819656 -47.953949 -8.171988 14.129500
-22.397451 -47.704575 -8.165515 12.499042
-22.076065 -48.033386 -8.365627 10.154900
-20.874088 -48.028160 -8.255210 16.119301
-22.673296 -47.314835 -8.116579 14.785667
-22.351454 -47.539734 -8.152183 13.277490
-30.453598 -46.636215 -8.387643 14.120100
-29.500036 -46.886002 -8.254435 16.121799
-28.659550 -46.748116 -8.060770 12.789233
-28.176878 -46.725685 -8.301024 8.135200
-28.042709 -46.648636 -8.223715 14.123600
-25.936615 -46.636410 -8.031530 14.142000
-22.922752 -46.653282 -8.190617 14.130650
-19.631319 -46.747353 -7.938195 16.118900
-28.393597 -46.394886 -8.184976 13.394891
-27.831322 -46.349033 -8.080483 13.239467
-26.469181 -46.246422 -8.042835 12.170100
-25.666904 -46.430687 -8.316355 14.124500
-25.132494 -46.169983 -8.320529 12.120800
-24.812752 -46.132587 -7.997187 12.126800
-23.391993 -46.296665 -8.141731 15.121401
-22.847775 -46.469528 -8.076670 12.792000
-20.806421 -46.358604 -8.210907 13.456567
-20.369864 -46.243927 -8.169674 12.137051
-19.892736 -46.340088 -8.010996 13.806184
-19.518049 -46.499855 -8.054903 14.144650
-32.681973 -45.690590 -7.894565 8.626200
-32.126152 -45.804092 -8.148480 12.128350
-31.854042 -45.771530 -8.267252 9.632681
-30.896044 -45.624012 -7.906587 16.130800
-29.378746 -45.764683 -8.100317 12.729050
-28.190741 -45.796036 -8.105680 16.119600
-27.870090 -45.739384 -8.137220 14.326485
-26.841846 -45.799347 -8.178628 13.539076
-26.520029 -45.630066 -7.930926 14.141400
-25.126778 -45.968895 -8.304050 12.122601
-24.970943 -45.971954 -8.191859 14.134939
-24.109566 -45.670654 -7.924433 14.127400
-23.860241 -45.753059 -8.045075 12.464849
-20.919178 -45.765907 -8.380566 18.042250
-20.316164 -45.985390 -8.208470 13.765073
-19.883667 -45.782921 -8.289686 13.630800
-19.544727 -45.864403 -8.337116 12.126700
-31.651806 -45.514343 -8.128027 6.131650
-31.460943 -45.351326 -8.097092 8.738540
-30.922554 -45.517914 -8.059008 10.794700
-30.270538 -45.170677 -7.977350 14.135700
-29.738396 -45.309052 -8.050044 12.006618
-29.450840 -45.520229 -8.091003 10.800209
-28.744616 -45.192871 -8.174465 13.552986
-28.351580 -45.179512 -8.106939 12.127450
-27.938412 -45.554718 -8.051414 16.119499
-27.103321 -45.215370 -8.201289 14.137700
-26.732302 -45.380604 -8.119237 12.928633
-26.449846 -45.426075 -8.099613 13.663894
-25.725794 -45.227180 -8.155277 13.127550
-25.437580 -45.431984 -8.107593 12.121700
-24.185196 -45.388016 -8.069803 13.328410
-23.941509 -45.463341 -8.223123 11.730889
-23.332153 -45.178627 -8.074439 12.139400
-21.849451 -45.472488 -7.988003 16.039400
-21.459137 -45.166367 -7.923229 16.039499
-19.202930 -45.303123 -8.068871 14.132626
-19.032536 -45.266186 -8.121608 13.131001
-30.180876 -44.806927 -8.034703 14.129700
-29.851912 -44.914806 -8.149446 11.992449
-28.795256 -44.901466 -8.115408 13.129880
-28.362684 -44.859505 -8.154602 12.793892
-27.953409 -44.667168 -8.193206 13.122950
-27.228453 -44.835007 -8.274981 14.129950
-25.674620 -45.051769 -8.233345 10.130899
-24.163717 -45.074211 -8.299313 12.124451
-23.818264 -44.926487 -8.042995 14.125500
-23.356623 -44.688622 -8.011995 16.045000
-22.828104 -44.705566 -8.003044 20.041050
-19.670582 -44.800865 -7.906736 16.033150
-19.410673 -44.927605 -8.259791 12.128600
-18.101984 -44.729164 -7.928862 14.140800
-17.871284 -44.792278 -8.124485 13.126713
-34.666374 -44.193321 -8.322519 11.455550
-34.321449 -44.242306 -8.182673 7.945871
-33.887417 -44.411449 -7.938779 12.156500
-33.388798 -44.198734 -8.146000 10.992150
-32.016758 -44.453800 -8.275066 12.156100
-31.466681 -44.336689 -8.347527 15.117350
-30.743629 -44.185013 -8.149554 12.981979
-30.372009 -44.173065 -8.188834 11.455234
-29.886768 -44.261539 -8.102945 11.572587
-29.116837 -44.163719 -8.143749 14.138300
-28.825560 -44.279152 -8.036832 14.129482
-28.409061 -44.343285 -8.254420 12.125633
-27.900232 -44.428509 -8.116555 13.127971
-26.588562 -44.394981 -8.369280 14.119600
-26.109943 -44.318302 -8.287619 14.119700
-24.173273 -44.329342 -8.075295 11.964428
-24.025448 -44.407387 -7.988243 14.139800
-23.267220 -44.183014 -8.377466 19.041401
-22.972584 -44.175648 -8.098554 15.528285
-21.667234 -44.159893 -8.352062 12.123800
-20.763359 -44.266296 -8.200025 18.041500
-20.451326 -44.204132 -8.146118 16.933554
-20.061462 -44.213383 -7.988661 20.043200
-18.086823 -44.595757 -7.908921 14.138600
-17.824982 -44.349655 -8.035784 12.138450
-17.304356 -44.491695 -8.150013 13.453992
-16.925287 -44.298634 -8.015319 14.125099
-16.142498 -44.128731 -8.080915 12.140751
-34.186928 -43.905205 -8.248086 7.332746
-33.891502 -43.926933 -8.046903 8.317051
-33.363777 -43.868877 -8.190595 9.557787
-32.988663 -43.862724 -8.183621 9.123365
-32.268135 -43.779598 -8.105975 12.529760
-31.952616 -43.789532 -8.204569 8.137700
-30.753637 -43.990417 -8.094265 11.576948
-30.438805 -43.916271 -8.295741 11.847114
-29.854078 -44.006832 -8.265245 10.796859
-28.859442 -43.935116 -8.071899 11.634573
-24.189007 -43.801556 -8.208274 12.542171
-23.970903 -43.797710 -8.044785 13.662401
-23.206539 -43.817974 -8.146724 13.720918
-22.973574 -43.872959 -8.152052 15.546020
-21.703615 -44.013683 -8.322145 13.454666
-21.152958 -43.775795 -8.232455 15.427733
-20.734749 -43.821404 -8.146600 13.960261
-20.461897 -43.968838 -8.147580 15.159935
-19.240593 -43.879150 -8.115932 13.033783
-18.746944 -43.867229 -8.092510 13.507125
-18.341228 -43.929131 -8.058688 14.126766
-17.140074 -43.908653 -8.095867 12.625975
-16.880898 -43.870377 -8.112393 13.083637
-16.338982 -43.901733 -8.041496 12.797466
-15.959682 -43.684830 -8.000378 12.809649
-34.175156 -43.586964 -8.323439 4.804033
-33.616886 -43.512817 -8.385585 16.116301
-33.387306 -43.454082 -8.040686 6.641900
-32.798958 -43.345650 -8.097257 9.397833
-32.423309 -43.324177 -8.142996 11.379417
-31.137415 -43.429703 -8.060535 6.130700
-30.338207 -43.591228 -7.929874 18.103800
-24.724880 -43.489189 -8.220998 16.104601
-24.343233 -43.461834 -8.151525 14.117060
-23.949587 -43.357689 -8.127344 12.660044
-23.350821 -43.526566 -8.073822 16.484579
-22.849924 -43.521915 -8.058486 19.412901
-22.389233 -43.587902 -8.277273 14.121901
-21.946201 -43.505241 -8.272160 14.120100
-21.343159 -43.360439 -8.227252 12.451441
-20.945871 -43.486744 -8.048889 15.762050
-16.849007 -43.407719 -8.004776 12.417842
-16.350843 -43.419331 -8.063244 12.930120
-15.858100 -43.367714 -8.249708 12.284924
-15.572340 -43.407303 -8.378762 12.127000
-33.142609 -42.987370 -8.055035 8.124467
-32.806820 -42.910061 -8.052158 8.209499
-32.363525 -42.910316 -8.096196 9.714097
-31.963041 -42.624748 -8.141108 12.121200
-30.925373 -42.680832 -8.305797 6.129900
-25.321198 -42.960613 -8.198592 12.924514
-24.732286 -42.983810 -8.008713 14.782300
-21.655396 -42.801308 -8.334262 14.120250
-21.292343 -42.749870 -8.212753 11.760453
-20.957176 -42.959457 -8.002941 12.795334
-15.776910 -43.060520 -8.295870 12.123800
-32.301643 -42.518234 -7.951216 4.145100
-31.805216 -42.398891 -7.964086 11.627288
-31.363777 -42.394558 -8.070956 11.318204
-26.661558 -42.219509 -7.936619 16.036100
-26.483335 -42.328300 -7.935965 16.036200
-25.528185 -42.515453 -8.118872 14.122182
-22.899996 -42.213165 -8.199636 14.957857
-22.309946 -42.192520 -8.223213 16.093599
-21.844324 -42.371132 -8.323227 14.119802
-21.391356 -42.352364 -8.024255 13.177521
-20.887686 -42.454605 -7.933743 10.146000
-33.135254 -41.707893 -8.257963 8.528521
-32.972565 -41.720566 -8.135988 8.379531
-31.316856 -41.999245 -8.148109 11.720370
-25.871613 -41.728680 -8.341035 14.156800
-23.096680 -41.983807 -7.952987 14.132000
-22.680763 -41.889160 -8.117597 14.752755
-22.457384 -41.990532 -8.256521 13.717596
-21.719555 -41.933197 -8.171412 12.461366
-33.257957 -41.371536 -8.153025 10.121000
-32.970009 -41.474632 -8.202002 9.123626
-32.310673 -41.306034 -8.071905 10.574840
-31.904070 -41.429291 -8.178252 13.473735
-31.509579 -41.342880 -8.188295 12.122400
-27.913261 -41.314613 -7.953309 16.041750
-27.118822 -41.244316 -7.916639 12.127100
-27.056580 -41.154396 -7.900353 12.127200
-25.889568 -41.172302 -8.250255 9.349340
-23.116745 -41.608093 -8.327484 14.116950
-22.700077 -41.557999 -8.005455 12.125051
-21.723194 -41.591179 -8.160444 12.135600
-20.507532 -41.502232 -8.301513 12.143200
-47.748741 -41.037788 -7.976598 18.122101
-33.291847 -40.972733 -7.989547 8.791387
-32.846058 -40.857376 -8.156890 10.335155
-32.327122 -40.822472 -8.193266 10.399443
-32.001686 -40.769962 -8.283872 13.678118
-26.787743 -40.842323 -7.966843 11.530480
-26.353403 -40.918343 -8.103903 12.118924
-25.835676 -40.811943 -8.169325 11.480268
-25.398493 -40.851471 -8.050835 15.768132
-22.765152 -40.747543 -8.050470 13.126292
-22.447613 -40.748352 -8.097633 16.662703
-19.690313 -40.731876 -8.178877 12.789533
-32.812527 -40.547230 -7.983620 14.130199
-32.278469 -40.365341 -8.091449 9.843123
-31.981598 -40.484043 -8.098921 9.878487
-27.237797 -40.508400 -8.165218 11.632888
-26.893105 -40.450668 -8.272696 14.127174
-26.210848 -40.232979 -8.227660 15.088924
-25.819643 -40.527515 -8.228233 12.716345
-25.460949 -40.387581 -8.141940 14.123050
-22.782364 -40.317928 -8.117395 12.050353
-22.424746 -40.349285 -8.058272 14.568633
-19.192381 -40.190117 -8.025463 12.983558
-19.055786 -40.264671 -7.947485 13.129000
-32.418747 -39.959484 -8.109956 7.622144
-32.053101 -40.009384 -8.031152 9.126834
-26.313808 -39.946903 -8.233043 16.101999
-25.822823 -40.111382 -8.039153 12.141700
-25.422432 -39.808849 -8.109612 13.033209
-24.843662 -39.753548 -8.155280 12.976527
-24.575754 -40.099518 -7.950317 14.132500
-22.696627 -40.003887 -7.956413 13.444106
-22.411577 -39.906261 -8.096310 13.029932
-19.605881 -39.809265 -8.077848 12.134300
-19.334660 -40.055977 -8.195092 11.910145
-18.846615 -40.063210 -8.333946 10.122500
-25.645145 -39.285835 -8.147633 12.918401
-25.179308 -39.334179 -8.226077 13.213415
-24.946260 -39.410976 -8.157447 12.288605
-24.570568 -39.330116 -7.905512 12.141900
-22.685944 -39.461304 -7.949198 18.038849
-22.288446 -39.449471 -8.234262 12.844202
-21.962025 -39.346252 -8.267778 11.558542
-20.110929 -39.327503 -8.257329 11.139800
-19.803568 -39.274559 -8.121982 11.666857
-19.311449 -39.186291 -8.136369 12.131131
-27.274731 -38.849960 -7.926279 14.115100
-25.674070 -39.005749 -8.134274 11.798058
-25.380255 -38.875511 -8.180978 12.640928
-24.999458 -39.020157 -8.181359 13.713221
-22.262554 -39.100124 -8.362837 12.130751
-21.744438 -38.998341 -8.048666 12.893666
-21.141806 -38.884224 -8.177649 12.126100
-20.719065 -38.772102 -8.309810 11.139183
-20.362835 -39.003990 -8.292335 16.734865
-19.751194 -38.776833 -8.281828 10.881500
-19.310497 -38.908627 -8.118664 11.132818
-18.882641 -38.892651 -7.987185 12.562128
-33.790684 -38.598682 -7.891073 18.033800
-25.948509 -38.246151 -8.033805 13.129738
-25.323652 -38.424057 -8.108148 13.267158
-22.537951 -38.178772 -8.367858 14.109051
-21.359207 -38.450851 -8.078300 16.039450
-20.606966 -38.450832 -8.263264 12.124950
-20.512672 -38.362400 -8.129106 11.562306
-19.928286 -38.475883 -8.152552 12.118299
-19.428852 -38.417397 -8.136676 10.563952
-16.753082 -38.505867 -7.929236 14.033200
-25.794949 -38.049114 -8.206167 13.115700
-24.130108 -37.751163 -8.059475 12.131300
-23.990681 -37.683617 -8.020780 11.130250
-22.560015 -37.997120 -8.361429 14.108900
-21.934179 -37.806561 -8.366831 12.115700
-20.674334 -37.798111 -8.127389 12.785500
-20.329121 -37.795689 -8.139265 11.589339
-19.837692 -37.655296 -8.065372 12.146400
-19.178669 -37.937332 -8.313910 13.095200
-18.874632 -37.949455 -8.194850 11.743680
-16.162865 -37.859184 -8.255463 12.080299
-15.967175 -37.744579 -7.901376 18.042801
-27.681042 -37.279377 -8.167675 9.132106
-27.435190 -37.369087 -8.125967 9.818618
-26.972042 -37.468384 -8.031654 12.134000
-25.993744 -37.448112 -8.069635 12.796234
-24.524014 -37.361923 -7.997433 14.114000
-23.765060 -37.314606 -8.099078 12.784859
-20.757324 -37.298340 -8.116771 12.121839
-20.312452 -37.443073 -8.067512 11.025888
-19.921991 -37.430607 -8.098036 11.994020
-19.102324 -37.513771 -8.263884 10.125851
-27.765272 -36.770164 -8.214592 9.467853
-27.529438 -36.867184 -8.253160 9.403319
-23.772385 -36.797535 -8.010147 12.215102
-21.935686 -36.735470 -8.264737 11.914250
-20.833742 -37.084507 -8.224710 12.116900
-20.274773 -36.887108 -8.070033 13.112050
-20.068443 -37.071758 -8.045930 14.106200
-30.217684 -36.227859 -8.310013 9.469967
-29.880470 -36.340004 -8.325790 9.127800
-29.156967 -36.166107 -8.230058 10.132900
-28.162024 -36.484535 -7.918411 12.129700
-27.913422 -36.503910 -8.013307 8.136869
-27.253443 -36.477005 -8.157256 12.922699
-26.857685 -36.288788 -8.108630 12.324230
-26.361805 -36.453701 -8.175223 10.931270
-25.964554 -36.393677 -8.008904 10.133333
-25.351961 -36.319889 -8.233578 11.412657
-24.322001 -36.468361 -8.096420 11.725816
-23.823044 -36.504864 -8.155504 11.681242
-22.332031 -36.500774 -8.180660 12.121325
-21.928652 -36.406261 -8.091467 12.660586
-30.281170 -35.913483 -8.174231 8.401851
-29.810650 -35.756889 -8.174762 7.958356
-29.322147 -35.753933 -8.117321 8.422429
-28.781174 -35.774780 -8.117184 10.128249
-28.367014 -35.786724 -8.206733 10.520100
-27.881491 -35.921772 -8.013091 9.518720
-27.358799 -35.839050 -8.067293 9.646800
-26.765940 -35.996582 -8.075809 10.929601
-25.603420 -35.626778 -8.261230 10.138600
-25.434269 -35.836525 -8.198421 10.930600
-24.790703 -35.941750 -8.355968 10.144001
-24.433109 -35.773819 -8.343335 9.886706
-23.752832 -36.107166 -8.373564 8.144200
-23.447191 -36.033340 -8.142899 10.798600
-22.841934 -35.833549 -8.137051 11.123525
-22.416317 -35.873867 -8.192556 10.129867
-21.096270 -36.011402 -8.281952 18.040199
-20.762972 -35.875149 -8.291311 10.149100
-20.567112 -35.859917 -8.297867 8.142400
-30.678143 -35.352837 -7.965754 11.358623
-30.383244 -35.427444 -8.142477 9.397635
-29.821293 -35.448048 -8.206624 9.067064
-29.336119 -35.337486 -8.069838 8.137022
-28.784210 -35.369305 -8.149892 8.558740
-28.193316 -35.187664 -8.062886 20.035900
-27.774940 -35.470009 -7.987362 10.283742
-27.419771 -35.346748 -8.247224 9.628300
-26.952904 -35.183887 -8.263083 8.934880
-25.694139 -35.508137 -8.085395 10.422786
-25.518110 -35.412186 -8.160323 11.458211
-24.802116 -35.457226 -8.238671 10.127967
-24.341602 -35.341194 -8.119838 9.786932
-23.962381 -35.351357 -8.299800 9.736296
-23.241013 -35.129890 -8.344064 9.141800
-22.697037 -35.295853 -8.107032 10.532067
-22.315859 -35.383369 -8.161888 9.465427
-21.776684 -35.372322 -7.941649 8.156700
-21.178867 -35.293003 -8.093754 16.038675
-20.604853 -35.317154 -8.272062 12.116000
-20.497448 -35.178974 -8.292998 8.137900
-19.743454 -35.458595 -8.095994 17.039150
-29.816359 -34.934498 -8.083876 8.678977
-29.378683 -34.985180 -8.058064 7.048400
-28.894056 -34.989471 -8.179175 8.135404
-28.305670 -35.012711 -7.958981 14.099667
-27.198193 -34.982971 -8.106641 9.633175
-26.955339 -35.058365 -8.205797 10.136901
-25.581913 -35.064003 -7.898971 10.143800
-24.358868 -34.924652 -8.105833 9.635300
-23.874075 -34.811962 -8.117712 10.533780
-23.326952 -35.061707 -8.313033 8.141000
-22.981819 -35.100479 -7.921283 8.139800
-21.250313 -35.001022 -8.063271 16.038101
-20.801102 -34.734859 -8.221622 11.265049
-20.471872 -34.789665 -7.988979 12.386528
-29.145876 -34.327080 -7.979846 7.965475
-29.042051 -34.262070 -7.994709 7.637850
-27.596092 -34.266670 -7.898917 12.118600
-24.156776 -34.288361 -8.191017 9.127225
-23.940933 -34.459507 -8.113644 10.026808
-23.424101 -34.331585 -8.106118 9.290318
-22.223957 -34.256588 -8.032947 10.134663
-21.811396 -34.228016 -7.948553 9.907845
-21.299669 -34.336998 -8.157944 10.302866
-20.797218 -34.395004 -8.143938 10.991620
-20.317209 -34.352600 -8.158978 11.442464
-19.809624 -34.296074 -8.117940 9.570244
-19.448166 -34.241657 -7.969356 13.093275
-29.211931 -34.006844 -8.000958 8.134816
-29.035110 -34.068680 -7.977766 7.134850
-28.207121 -33.636322 -8.379349 8.133050
-23.381416 -34.084827 -8.326504 10.121201
-22.895004 -33.915382 -8.242068 8.133400
-22.331081 -33.663307 -8.327562 7.134350
-21.777626 -33.856129 -8.098050 12.112150
-21.423271 -33.851212 -8.152710 9.776747
-20.816517 -33.865173 -8.026981 11.684196
-20.348181 -33.902054 -8.219196 10.302220
-19.781906 -33.947014 -8.197230 9.375644
-19.429853 -33.900043 -7.991383 11.489450
-19.013872 -33.695557 -7.913886 10.134267
-22.635624 -33.510712 -8.056429 10.145000
-22.246323 -33.487450 -8.197926 8.799867
-21.801649 -33.354717 -8.061477 9.970440
-21.418875 -33.390507 -8.058742 10.126328
-20.736689 -33.333752 -8.109173 10.865804
-20.404352 -33.249481 -8.056235 10.043459
-19.832340 -33.377071 -8.233352 8.912881
-19.361460 -33.237888 -8.059560 10.127782
-19.015270 -33.401623 -7.986563 11.776532
-21.857828 -32.963337 -7.984084 12.348462
-21.253815 -32.868404 -8.129998 9.180195
-20.912483 -32.947388 -8.073144 10.963830
-20.286768 -32.867310 -8.107858 8.579449
-19.970020 -32.773624 -8.062645 9.923399
-19.306742 -32.908386 -7.998882 9.219460
-19.041260 -32.990181 -7.955153 8.143200
-21.664896 -32.425873 -7.908751 14.104300
-21.223680 -32.446083 -8.085846 8.125132
-20.782366 -32.417233 -8.111128 6.678772
-20.368053 -32.387642 -8.142034 7.887709
-19.789965 -32.365658 -8.127241 9.490497
-19.420732 -32.297791 -8.051753 9.730911
-19.001831 -32.231583 -8.009616 6.133500
-22.886730 -31.777628 -8.285184 18.036699
-20.696943 -31.975174 -8.022952 9.619281
-20.261995 -31.878868 -8.151996 9.881752
-19.841951 -32.002132 -8.188162 7.664874
-19.344522 -31.887142 -8.064593 8.426400
-19.062531 -31.626385 -8.200184 14.097800
-20.302794 -31.397505 -8.219021 6.990118
-20.053478 -31.613770 -8.186193 8.146200
-19.222197 -31.563389 -8.130202 10.129300
-20.337936 -31.088211 -8.348644 8.116850
-36.812393 -23.505882 -7.941463 18.107300
-27.989925 -20.940102 -8.051838 18.029699
-35.570206 -20.439539 -8.104425 0.107800
-47.400986 -12.721206 -8.022754 2.729033
-48.151493 -12.257700 -8.065350 0.034650
-47.737507 -12.212392 -8.044415 0.240035
-47.532364 -12.363166 -8.051984 0.037725
-42.047253 -12.169037 -7.958241 14.092900
-8.406301 -12.154331 -8.126064 12.078449
-47.905487 -11.988676 -8.067209 1.191428
-47.312546 -11.927895 -8.036312 1.138891
-46.976692 -12.053270 -8.117221 0.043800
-41.922333 -12.042582 -7.987953 0.077200
-49.857281 -11.318987 -7.954498 3.043108
-49.415161 -11.253731 -7.975704 2.039100
-41.999691 -11.146807 -8.265499 12.093700
-41.356525 -11.292521 -7.969363 0.014100
-31.887188 -11.401844 -7.980259 8.088436
-49.689034 -10.719575 -8.019682 3.489514
-49.512062 -10.664798 -7.974258 2.035100
-41.761925 -10.924162 -8.120670 6.553825
-41.218010 -10.764204 -8.285694 12.092525
-41.023808 -10.665970 -8.328121 13.054600
-31.893095 -10.836545 -8.051010 9.421065
-29.329042 -10.730314 -8.129539 6.114100
-49.897022 -10.487688 -8.014024 3.369617
-49.455231 -10.473175 -8.022578 3.545963
-48.922287 -10.277198 -7.953297 3.025400
-42.173393 -10.507547 -8.367060 0.016150
-41.117687 -10.477032 -8.345238 0.013900
-40.857082 -10.469601 -8.118919 0.013487
-40.297173 -10.194570 -7.940462 0.012900
-30.353079 -10.384439 -8.242714 4.305494
-29.708786 -10.297962 -8.101811 5.972844
-29.455866 -10.277575 -8.238087 5.918195
-49.611626 -9.976192 -8.168000 3.028925
-49.283119 -9.967356 -8.073128 3.034275
-41.020683 -9.848546 -8.275081 9.420834
-40.373390 -9.902937 -8.206732 0.012500
-31.204508 -9.665924 -8.081148 16.088900
-30.682795 -9.824030 -8.063658 4.082684
-30.323664 -9.922791 -8.146618 6.245237
-29.770149 -9.829433 -8.150412 7.025489
-29.470411 -9.881486 -8.134323 7.369289
-28.883587 -9.867329 -7.987368 4.415433
-28.559361 -9.731380 -8.035311 0.080400
-49.985695 -9.450839 -8.003382 4.035175
-48.957645 -9.169862 -7.917891 4.022000
-40.841267 -9.319523 -7.942898 0.014400
-32.312241 -9.191006 -8.267204 8.781667
-31.592171 -9.206330 -8.075791 8.083900
-31.158915 -9.374701 -8.143782 4.083600
-29.836008 -9.467003 -8.190260 8.085464
-29.405268 -9.403618 -8.131524 4.079911
-28.975147 -9.498363 -8.046926 6.082100
-27.997244 -9.428709 -8.298697 14.086300
-49.101059 -9.065550 -7.973587 4.022200
-48.978683 -9.020216 -8.044164 4.028900
-32.353947 -8.869889 -8.251285 9.084360
-31.766182 -8.941309 -8.164637 14.087950
-29.441496 -8.936149 -8.124110 8.369685
-32.241093 -8.436736 -8.162574 9.196488
-31.717926 -8.583747 -7.941234 4.076200
-27.750181 -8.268314 -8.099597 7.506642
-27.569168 -8.123741 -8.314050 14.085100
-26.797743 -8.220205 -8.082013 8.069024
-26.160437 -8.316024 -8.127789 8.065480
-25.934750 -8.193585 -8.048811 6.744766
-32.289940 -7.912719 -8.145269 2.075800
-30.614529 -7.918796 -7.905204 10.083651
-30.415806 -7.919849 -7.941046 8.080900
-29.289520 -7.723470 -7.963059 7.078350
-28.806332 -7.941960 -7.915818 3.076600
-28.167900 -7.760684 -8.109550 5.411634
-27.853657 -7.856513 -8.034918 5.973005
-27.295206 -7.798726 -8.090602 9.081725
-26.797253 -7.831943 -8.137573 8.493942
-26.351213 -7.845064 -8.134015 8.229140
-25.969778 -7.913286 -8.119646 6.354571
-10.684319 -8.025529 -8.221778 0.025600
-48.636845 -7.118675 -7.953456 4.030200
-30.327517 -7.593457 -8.013240 16.086000
-29.690123 -7.610177 -8.125180 12.086700
-29.267857 -7.506759 -7.978379 0.068700
-28.808720 -7.197793 -8.131966 7.077800
-28.245794 -7.212858 -8.236659 7.578750
-27.732229 -7.354057 -8.095782 7.078715
-27.356531 -7.395676 -8.090660 7.205293
-26.826317 -7.423552 -8.121781 8.419099
-26.348776 -7.456934 -8.117561 10.331836
-25.791170 -7.287108 -8.225867 7.531394
-25.362497 -7.331121 -8.200974 8.951967
-24.965904 -7.495331 -7.940697 2.071500
-24.238129 -7.310367 -8.098215 16.018749
-48.503437 -6.622139 -8.057106 4.037600
-35.908615 -6.828729 -8.196569 0.010150
-35.208748 -6.716044 -8.084764 0.011300
-33.387001 -6.663537 -8.331543 12.019600
-28.754709 -6.872731 -8.044633 2.873220
-28.322123 -6.873016 -8.290174 9.081249
-27.779375 -6.849976 -8.184542 6.622091
-27.291777 -6.909616 -8.204159 8.062840
-26.813457 -6.825670 -8.110430 7.881797
-26.332193 -6.874207 -8.129082 9.399938
-25.767673 -6.801213 -8.194784 9.979755
-25.375853 -6.843989 -8.272672 5.776746
-24.945646 -6.780019 -8.059612 9.077950
-24.328295 -6.729782 -8.084829 16.018200
-23.907505 -6.792805 -7.999487 16.018349
-23.398321 -6.910473 -7.892917 16.018499
-10.813336 -7.009252 -8.065434 0.030000
-49.958824 -6.419384 -8.091893 6.028750
-49.400940 -6.340601 -7.890981 6.021200
-35.364586 -6.279568 -7.984306 0.066700
-31.010677 -6.151416 -8.281695 8.079800
-29.135490 -6.371655 -8.327263 2.068000
-28.849014 -6.472983 -8.102362 8.747533
-28.400829 -6.418845 -8.030855 4.473240
-27.143606 -6.401632 -8.127850 5.408700
-26.810770 -6.400215 -8.168485 8.742440
-26.340059 -6.424506 -8.136917 8.520178
-25.798643 -6.377605 -8.117193 9.765457
-25.357424 -6.394434 -8.139990 8.735235
-24.885353 -6.405971 -8.218855 7.528814
-24.565741 -6.549549 -7.909722 14.082300
-23.597876 -6.183886 -7.901422 16.017799
-23.561176 -6.316905 -7.898502 16.017900
-48.680702 -6.067544 -7.981390 8.019899
-48.577473 -6.072585 -8.213099 4.037200
-47.794876 -5.737173 -8.203104 4.827520
-35.176918 -5.836388 -8.025760 7.049450
-34.531479 -5.686434 -7.911662 6.073050
-30.794636 -5.792950 -7.960438 12.086500
-29.790268 -5.954407 -7.910920 12.083300
-28.461693 -6.020487 -7.946461 2.067000
-27.848448 -5.904799 -8.021781 4.861300
-27.237911 -5.913243 -8.176339 6.741651
-26.870846 -5.922843 -8.182873 11.068493
-26.344446 -5.923086 -8.121998 7.692245
-25.780544 -5.825778 -8.201791 11.212757
-25.349249 -5.807214 -8.145695 8.469423
-24.870733 -5.797695 -8.144603 6.728761
-47.614902 -5.503941 -8.075523 4.035200
-46.741104 -5.468270 -8.274618 4.024650
-32.634872 -5.130844 -8.349116 10.080200
-32.266483 -5.582424 -8.028291 12.012300
-29.754414 -5.217243 -7.939020 8.078900
-27.660980 -5.459958 -7.991170 10.084400
-27.500359 -5.317055 -8.014226 6.739200
-26.747719 -5.403839 -8.053599 10.082033
-26.237890 -5.396153 -8.157979 11.253341
-25.750196 -5.353057 -8.153706 9.752243
-25.428659 -5.371800 -8.171090 11.614649
-24.859228 -5.344503 -8.106461 6.814003
-24.436569 -5.218786 -8.044973 7.553581
-24.022823 -5.389524 -7.948730 16.017099
-47.606121 -4.926853 -8.363158 4.027200
-39.814980 -4.702021 -8.112076 0.032300
-32.748447 -4.908220 -8.108716 12.011650
-32.272858 -4.721716 -8.018976 16.078600
-27.892986 -4.815523 -8.140360 5.403000
-27.399382 -4.790177 -8.119306 6.071700
-26.874905 -4.900974 -8.214636 5.406567
-26.346685 -4.996046 -8.152535 9.497399
-25.757370 -4.957638 -8.228472 11.415236
-25.331982 -4.867963 -8.185287 10.932034
-24.758158 -4.900440 -8.118075 10.609647
-24.348600 -4.834206 -8.072133 8.214520
-23.936039 -4.745700 -8.035448 9.890754
-36.631527 -4.333831 -8.276598 12.082400
-33.423008 -4.535133 -8.243574 12.011300
-32.643742 -4.314260 -8.155794 15.346600
-32.198364 -4.514629 -7.981417 12.011400
-29.418953 -4.403160 -7.979585 14.074700
-27.302435 -4.357923 -8.313031 10.012000
-26.836506 -4.472090 -8.140302 9.253361
-26.277622 -4.454814 -8.336563 13.381316
-25.834822 -4.443303 -8.259043 14.043316
-25.311216 -4.355874 -8.144116 11.277618
-24.789223 -4.355489 -8.069020 9.145591
-24.322983 -4.431989 -8.043326 9.647031
-23.890665 -4.492923 -8.036776 8.570000
-39.993519 -3.853622 -7.972860 2.026250
-39.350723 -3.864000 -8.147522 1.025550
-35.693859 -3.943826 -8.208521 2.059100
-35.443401 -3.950442 -8.363073 0.053500
-34.744385 -3.990117 -8.070211 1.057200
-33.849350 -3.957668 -7.981711 0.044900
-33.436932 -3.809388 -7.897645 0.075900
-32.728043 -3.814355 -8.174173 10.020550
-32.309345 -3.860654 -8.017652 12.017400
-30.958591 -3.777949 -8.135658 0.059800
-30.081310 -3.978418 -8.383224 8.076600
-29.809326 -3.982033 -8.241700 6.074300
-27.665083 -3.670575 -8.352669 12.071600
-27.339050 -3.761116 -8.307666 2.542250
-27.012079 -3.801473 -8.288229 2.060050
-26.389172 -3.880091 -8.295277 12.529075
-25.881239 -3.894704 -8.222390 14.681878
-25.338820 -3.915659 -8.141675 13.757459
-24.894295 -3.823481 -8.123736 12.520077
-24.367359 -3.932217 -8.085439 11.412967
-34.103329 -3.431362 -8.259956 0.045400
-33.106625 -3.372757 -8.300085 2.066900
-32.787407 -3.425203 -8.128412 16.013050
-31.989000 -3.460386 -8.307244 0.050400
-31.207651 -3.537865 -8.163316 2.058800
-28.567787 -3.280358 -8.233220 18.012800
-27.619186 -3.411675 -8.365652 10.010949
-26.220757 -3.273517 -8.344035 16.015100
-25.900360 -3.361068 -8.260474 16.015299
-25.252682 -3.436841 -8.085577 14.244105
-24.903385 -3.447187 -8.121650 15.434641
-24.171324 -3.457293 -8.095799 14.080200
-40.493530 -2.892647 -8.072717 2.040000
-37.229977 -2.962373 -8.233875 4.061000
-33.215523 -3.103927 -7.951077 14.011800
-31.832088 -2.674669 -8.225416 9.038099
-29.087765 -2.919994 -8.130136 12.080200
-27.663528 -2.982955 -8.381790 11.011250
-27.105534 -2.753410 -8.101367 8.042925
-26.800840 -2.781809 -8.193399 10.514575
-26.347876 -2.827588 -8.230428 14.013383
-26.018267 -2.649361 -8.255095 16.014700
-25.129604 -2.998513 -7.966876 14.013200
-24.890781 -3.014168 -8.071110 16.680468
-38.340557 -2.255606 -7.951352 6.062100
-31.776457 -2.571203 -8.254217 10.078300
-30.766369 -2.205338 -7.963113 12.042801
-30.433350 -2.202503 -8.215564 7.068833
-29.776346 -2.462269 -7.903376 6.065900
-28.122910 -2.173503 -8.239192 2.051450
-27.403969 -2.334453 -8.319792 10.415441
-26.992367 -2.550455 -8.217354 12.011650
-26.485317 -2.470790 -8.370684 16.015100
-25.969585 -2.309383 -8.294925 16.014000
-24.641142 -2.208663 -7.943894 16.014299
-30.600147 -2.086052 -7.894247 2.041600
-28.581524 -2.102767 -7.900341 2.037200
-27.230942 -1.899916 -8.140285 6.037850
-26.725119 -1.786241 -8.236278 16.014059
-26.376120 -1.886391 -8.219201 11.362067
-25.842075 -1.989106 -8.234056 16.014250
-25.544613 -1.753822 -8.159844 16.014000
-24.877134 -1.899153 -8.003819 16.013933
-24.463533 -1.800068 -7.889539 16.013901
-30.445923 -1.279689 -8.364919 6.066000
-28.432243 -1.230782 -8.171629 18.011400
-26.976736 -1.450126 -8.351897 16.678499
-26.416946 -1.331557 -8.164093 14.308814
-25.912146 -1.226885 -8.186740 14.702634
-25.404072 -1.346723 -8.076107 15.408396
-24.922577 -1.444705 -8.048780 11.037476
-37.912987 -0.891803 -8.346034 4.045100
-28.495834 -0.954900 -8.255379 10.029400
-27.954639 -0.769777 -8.352449 12.009925
-27.308741 -0.714658 -8.308449 12.011900
-26.817957 -0.624962 -8.306920 16.013399
-25.905743 -0.712743 -8.150782 16.014400
-25.360481 -0.894849 -8.054785 16.013399
-24.843061 -0.915174 -7.955074 16.013466
-35.330078 -0.335348 -8.224676 9.067750
-35.069237 -0.427597 -8.376638 18.083000
-31.062801 -0.135131 -8.071447 16.010099
-30.314377 -0.284696 -7.907619 16.010201
-26.803150 -0.437485 -8.213111 15.011950
-26.422678 -0.265542 -8.242867 18.012550
-25.975475 -0.371315 -8.169807 16.013399
-25.146412 -0.327739 -7.988181 16.012699
-25.018698 -0.345241 -7.959110 16.012699
-35.637783 0.097996 -8.245451 18.014200
-31.432039 0.147837 -8.163140 10.065900
-27.651779 0.083054 -8.326096 12.702434
-27.279732 0.198861 -8.308355 12.699300
-26.703163 0.151889 -8.259453 16.011827
-26.552799 0.219645 -8.178118 14.812180
-25.277723 0.049698 -8.004908 16.012400
-34.478107 0.623795 -8.009415 13.193370
-32.099434 0.558622 -8.214817 8.066900
-27.678757 0.604159 -8.175083 15.010400
-27.273697 0.647746 -8.279769 13.210440
-26.827414 0.617271 -8.259286 15.261213
-26.444153 0.416952 -8.009809 14.084700
-35.453991 1.351348 -8.259115 14.010500
-31.580490 1.168794 -8.241161 16.009001
-28.315586 1.003895 -8.112082 18.009899
-27.303261 1.046949 -8.310230 14.344134
-27.034330 1.166963 -8.340076 14.009500
-25.629501 1.262819 -8.038465 16.012100
-35.251709 1.430472 -8.179426 16.011299
-33.001862 1.620108 -8.105163 10.067300
-29.832550 1.833945 -7.890158 16.008301
-27.168154 1.413865 -8.322755 16.011700
-26.303669 1.823015 -8.143412 12.042100
-34.016853 2.221346 -8.076755 6.047600
-30.964539 2.051180 -8.149111 16.008200
-27.105503 2.027042 -8.228925 14.010250
-26.944311 2.328726 -8.239179 14.010450
-26.293463 2.157303 -8.093799 15.021615
-25.906372 2.236575 -8.045411 15.365734
-25.532063 2.091748 -7.985791 15.366066
-31.158529 2.625677 -7.984015 6.042900
-27.184027 2.798354 -8.342606 16.010401
-26.736862 2.773648 -8.158055 14.044350
-26.208328 2.759324 -8.124681 16.010601
-25.606869 2.735197 -8.336026 12.073600
-25.447853 2.443726 -8.112865 15.365083
-27.642208 3.021486 -8.269038 12.008500
-27.370098 3.149924 -8.207573 15.063276
-26.852858 3.110834 -8.208067 14.561138
-26.385321 3.127123 -8.221517 15.022283
-25.676777 3.258142 -8.043212 14.449219
-38.925797 3.541650 -8.046022 8.050800
-30.076773 3.694983 -8.269925 6.041300
-27.250332 3.661618 -8.183830 13.561050
-26.856380 3.667593 -8.228630 14.261027
-26.340302 3.527747 -8.089479 14.819485
-25.903799 3.700781 -8.061470 14.193757
-25.209427 3.658035 -8.123397 16.010267
-23.791115 3.648716 -8.386887 10.061600
-27.086496 3.940065 -7.914889 14.077700
-26.812647 4.002739 -8.229259 15.376508
-26.217747 4.178460 -8.137552 18.010900
-25.865374 4.044066 -8.048420 14.161945
-25.411606 4.105835 -8.057980 13.391430
-27.315540 4.652529 -8.341490 15.044050
-26.809088 4.541350 -8.206858 14.042950
-26.501984 4.542210 -8.276193 14.737717
-25.355610 4.577394 -8.070676 13.847706
-24.965878 4.657198 -8.128522 13.727592
-23.586611 4.856655 -8.090775 12.071000
-23.182863 4.751153 -8.010010 13.381317
-22.784357 4.743649 -8.176213 11.210093
-22.331039 4.733400 -7.940378 13.379833
-22.025307 4.852733 -7.954171 11.064751
-26.250561 5.144663 -8.184248 12.065600
-25.264339 5.002874 -8.338846 12.072400
-24.170656 5.249272 -7.945683 12.063250
-23.923531 5.219404 -8.047394 12.402434
-23.201195 5.211323 -8.143954 10.730649
-22.842007 5.147166 -8.121721 11.392284
-22.484573 5.199200 -8.219699 10.564575
-22.002295 4.948932 -7.923780 11.064000
-27.435467 5.617229 -8.159739 15.042600
-25.558281 5.773056 -8.216248 12.064600
-24.628284 5.628564 -7.953175 11.060450
-24.416210 5.699134 -8.083510 14.318675
-24.043062 5.517097 -8.138365 13.072650
-23.338682 5.518038 -7.992022 11.402600
-22.566843 5.405670 -8.346160 12.069700
-25.777361 5.997592 -8.169161 13.571751
-25.292656 6.117096 -8.142248 13.068645
-24.834194 6.076149 -8.188304 13.401608
-24.353834 6.211467 -8.136120 13.068650
-23.835114 6.174374 -8.059351 13.398567
-23.285746 6.093916 -7.986320 13.073500
-22.284702 6.240929 -7.948753 11.398167
-25.276623 6.615248 -8.261937 14.567901
-24.818043 6.817912 -8.092318 14.074550
-24.252697 6.675388 -8.076474 16.061899
-23.925861 6.467181 -8.059736 14.731500
-23.128319 6.389490 -8.287583 12.069900
-21.657310 6.745389 -7.986864 12.060050
-24.608608 7.272305 -8.291203 16.070700
-22.395786 7.183578 -8.148608 12.060800
-21.559479 6.953835 -8.200377 12.068300
-23.668816 7.400219 -8.073031 12.060500
-22.867357 7.603815 -8.277830 12.061200
-3.781169 11.008813 -8.004681 12.710366
-0.684856 11.258563 -8.019693 4.166450
-3.853652 11.693748 -8.017159 6.603200
-3.399005 11.769135 -8.121865 9.071575
-21.535206 12.081541 -7.907003 14.070000
-3.718753 12.055326 -8.021694 14.046170
-3.556559 11.955553 -8.153979 14.038600
-1.171723 12.851783 -8.114508 0.823067
-0.761898 12.782444 -8.092352 2.158300
-0.146323 12.735740 -8.378249 2.161800
0.158720 12.791243 -7.941572 0.150875
0.839734 12.749251 -8.123341 6.165450
-30.855589 13.121632 -8.156736 12.168449
-4.353511 13.150818 -8.209711 0.959040
-1.212209 13.049387 -8.011830 6.107078
-0.845679 13.184295 -8.078572 3.195408
-0.381510 13.123444 -8.031332 2.915189
0.232119 13.061913 -7.990091 0.646038
0.627809 12.886312 -8.222536 6.165600
-4.618087 13.764135 -8.319237 0.144300
-4.235625 13.628813 -8.262153 1.490067
-2.305588 13.446636 -8.284237 0.139850
-1.229936 13.504915 -7.937208 14.057600
-0.838669 13.465356 -8.181491 7.167362
-0.327200 13.496284 -8.314558 12.168900
0.176195 13.509394 -8.050406 7.363280
0.571723 13.801626 -8.218315 1.145450
1.096344 13.704702 -7.904915 0.140225
1.716743 13.715697 -7.891268 12.167200
-4.398790 14.225238 -8.256821 12.171600
-3.893952 13.985250 -8.326729 4.157150
-2.211579 14.238215 -8.156148 1.750960
-1.900707 14.184191 -8.289425 9.103900
0.334009 14.026272 -8.043613 2.726243
0.631982 14.011597 -8.077435 8.164092
1.381443 14.088623 -7.926618 3.151800
1.555977 14.077773 -7.975421 12.167100
-13.308645 14.498907 -8.184721 9.099750
-4.855167 14.789638 -8.079304 7.164800
-4.228015 14.790001 -7.991951 5.456900
-3.934979 14.742737 -8.173834 8.491540
-3.516666 14.843061 -8.235597 14.057500
-2.679287 14.815036 -8.208035 9.135250
-2.499058 14.804563 -8.237485 12.043050
-1.779344 14.532191 -8.137984 9.769433
1.819626 14.647083 -8.137377 1.483700
-13.953962 15.138157 -7.917682 12.168400
-12.786499 15.206913 -8.365966 6.169600
-11.954859 15.187400 -8.099738 6.161900
-10.138444 15.372281 -8.309578 4.166400
-4.971665 14.965504 -8.048599 4.155100
-4.237293 15.008364 -8.045217 11.098701
-3.817999 15.001749 -8.069123 10.131543
-3.355200 15.014003 -8.151549 12.113400
-2.769808 15.037183 -8.088435 12.706066
-2.325113 15.124244 -8.054368 10.112956
-1.951750 15.212816 -8.015409 10.110750
2.174534 14.985372 -7.977503 12.166200
-13.762987 15.699442 -8.096631 14.064550
-13.434369 15.854069 -7.924253 12.167300
-11.641979 15.647095 -8.092069 8.161224
-11.267473 15.744925 -8.169269 8.123666
-10.844176 15.717669 -8.199848 9.104550
-10.167143 15.734360 -8.160190 10.164200
-9.660954 15.828271 -8.230511 6.163600
-3.855255 15.671824 -8.246707 14.040300
-2.659326 15.870667 -8.037904 16.063200
-2.288783 15.700023 -8.029673 10.924199
-1.954466 15.816667 -8.180992 7.510380
-1.334635 15.813347 -8.144578 6.292092
-0.952725 15.756346 -8.189277 11.079149
-0.232502 15.788936 -8.071084 4.649375
0.323754 15.799441 -8.007356 2.140162
0.614689 15.785753 -8.212669 12.052900
-13.722711 16.303028 -8.084779 12.167200
-12.967236 16.118395 -7.944807 14.063000
-11.587477 16.289663 -8.337428 6.160500
-11.381096 16.160648 -8.172206 8.160500
-10.764760 16.223087 -8.194557 8.129826
-10.266169 16.099520 -8.279056 10.164000
-9.877826 16.223763 -8.142607 13.049050
-3.392011 16.114754 -8.244738 12.169649
-2.592872 16.282352 -7.895451 8.165300
-2.204591 16.191914 -8.190690 10.775383
-1.873974 16.029280 -8.151550 9.066046
-1.360351 16.073490 -8.171382 11.792143
-0.790805 16.091555 -8.050268 13.429967
-0.219588 15.990538 -8.093030 7.680851
0.090420 16.134401 -8.171884 9.420313
0.518681 16.065266 -8.145757 9.131300
1.008372 16.370539 -8.308912 12.052800
-18.206776 16.801369 -7.996431 14.170300
-17.782722 16.797651 -8.353574 16.055099
-13.988928 16.780966 -8.246758 12.167049
-13.234192 16.453896 -8.071703 13.115450
-12.874570 16.739758 -8.088524 11.444916
-11.329821 16.669621 -8.284018 8.164000
-10.645384 16.667400 -8.148609 8.166700
-10.459128 16.739338 -8.151555 7.494967
-9.645042 16.746950 -8.140098 6.164650
-9.411279 16.792515 -8.112551 6.164300
-7.823088 16.699137 -8.229237 4.147600
-3.718100 16.818008 -8.375474 4.158950
-3.366285 16.576195 -8.224038 8.965264
-2.889780 16.515665 -8.187366 13.244870
-2.407630 16.541887 -8.171803 10.557214
-1.852704 16.617048 -8.266468 11.109301
-1.089339 16.577200 -8.021543 16.062799
-0.852364 16.595737 -7.923959 16.062700
0.295896 16.514660 -8.229628 4.952600
0.567314 16.576344 -8.219637 5.154000
-19.424534 17.180342 -8.327611 14.170850
-18.330278 17.165260 -8.077413 14.170100
-13.751572 17.262262 -8.077699 9.499101
-10.537931 17.315428 -8.203104 12.169800
-9.848930 17.147820 -8.191441 10.168550
-9.288261 17.185183 -8.312791 10.162083
-8.971305 17.203947 -8.163258 6.163500
-8.305582 17.120134 -8.039518 14.047800
-3.889235 17.227886 -8.017516 14.052500
-1.399186 17.275398 -8.371226 6.156775
0.822487 16.889410 -8.325989 12.169100
1.117964 17.230934 -8.317055 12.168700
1.545487 17.329737 -8.032272 11.167400
1.923053 17.323471 -8.241528 6.159200
-15.459032 17.622835 -7.956192 12.170500
-13.454296 17.614529 -8.156076 10.167074
-10.706467 17.833973 -8.014243 12.171450
-9.771799 17.635601 -8.108156 13.468633
-9.482868 17.501953 -8.227315 9.102900
-8.816028 17.562548 -8.049720 11.422684
-8.382653 17.434395 -8.080109 6.155700
-3.105797 17.831673 -8.032427 10.168300
1.721511 17.451931 -7.927721 8.150350
2.273676 17.654091 -8.360919 12.164800
-19.394037 18.122597 -8.286919 14.056250
-18.350107 18.183197 -8.233229 14.169350
-17.647198 18.332582 -8.100143 14.168700
-13.271917 17.978039 -8.179983 11.108650
-12.913719 17.972322 -8.278310 8.165100
-11.170280 18.000002 -8.144595 12.171700
-10.665515 18.180643 -8.139887 12.492719
-10.379007 18.225489 -8.141233 12.389175
-3.779269 18.314445 -8.353706 4.155625
-3.306269 18.205519 -8.092351 10.124876
-2.915425 18.193958 -8.140740 12.416388
-0.332662 18.004358 -8.044368 4.150300
-0.016849 18.131527 -8.052084 4.142850
-19.544199 18.501322 -8.261678 14.055800
-18.541248 18.693789 -8.351435 14.169100
-17.159283 18.582264 -8.112692 13.107750
-16.696096 18.563026 -7.930901 14.167850
-13.134873 18.660769 -8.234627 8.167100
-12.823533 18.845259 -8.263412 10.158300
-10.871655 18.440464 -8.065040 13.425166
-10.328697 18.423756 -8.257089 10.165900
